# 3D point list with one line of data per point:
#   POINT3D_ID, X, Y, Z, R, G, B, ERROR, TRACK[] as (IMAGE_ID, POINT2D_IDX)
# Number of points: 346, mean track length: 4.6532190284081354
3240 0.12242969783549212 3.0388385888574163 16.973963529988907 248 255 255 1.6335467793947747 20 4428 27 6202 19 7478 28 6855 6 9834
3241 0.12249752231482761 3.0200429777517521 16.917232704084299 248 255 255 1.6422547037091904 3 6594 27 6203 19 7479 26 5223 28 6856 6 9833 8 10897 7 13653 5 10242 2 4828 1 5314
3242 -1.5529394234607643 2.6454218267298111 16.766337506489169 233 241 243 1.5433908802060008 20 7291 27 6209 19 12624 21 5138 1 5188 26 5065
3243 -1.5529394234607643 2.6454218267298111 16.766337506489169 233 241 243 1.5433908802060008 20 7290 27 6210 19 12623 21 5139 1 5187 26 5064
3244 0.045382073103441292 3.0352431295742228 16.943807336617603 243 252 254 1.8547787794271358 3 6592 27 6215 4 6729 28 6831 6 6472 8 7239 5 5980
3245 -0.80143426105867965 2.8667118855030926 16.941580238013792 244 252 255 0.25759791730176668 3 6360 27 6224 4 6396
3246 -0.46267590187208585 2.9680787128802772 16.952863364242223 247 255 255 0.18354392450290843 3 6470 27 6234 19 7464
3247 -0.27838833362760262 3.0963576181173433 16.977091921566053 246 254 255 1.1534494065702048 3 6622 27 6288 4 6703 28 6744 6 9811
3248 -4.2131521700189394 2.2009418286643707 16.639786546775227 252 255 255 2.1187645045334316 20 4131 27 6296 19 12504 21 5260
3249 -4.1803291595621648 2.1718884475408742 16.516578437732349 252 255 255 1.5955477194438086 20 4132 27 6297 28 4646
3250 -1.7027806038976234 2.8197172554355756 16.823917818499091 249 255 255 0.47048203196169919 3 6263 27 6316 19 7436
3251 -0.52065840249165496 3.1190487581606443 16.938572509003624 249 254 255 0.7609347061330054 3 6627 27 6331 26 5294 4 11411
3252 -3.5399813841512731 2.4114382500973859 16.665886589828421 238 243 246 1.1013243053568678 20 4223 27 6335 19 7258
3253 -0.043592789171849541 3.2313204081270213 16.907228583378426 207 214 220 1.2769126653766496 3 6747 20 4508 27 6337 21 5205
3254 -3.5605365012441519 2.3953693500151627 16.583235337453836 207 212 213 1.1527431255598697 20 4227 27 6341 19 12572
3255 -2.562464875360583 2.6096085475963382 16.606040602354199 207 214 220 1.476067663855829 20 4303 27 6342 21 5261 19 12657 1 5224
3256 0.089053883658839983 3.3498669337392748 16.899536170247622 235 244 243 1.6472731714992799 27 6388 19 12874 23 6604 26 5443 28 9657 6 11402 7 13741 5 12320
3257 -0.84160432357772919 3.1603244748078128 16.875984640651136 248 254 255 1.5385300486716347 20 4489 27 6393 19 7613 4 6667
3258 -4.3252611927429863 2.3390381991052602 16.588443472851402 235 241 241 1.6904743532775632 3 5681 27 6398 19 7263 28 4689 6 5150
3260 -3.5430910727705318 2.5256934184487836 16.549479879182222 208 216 219 0.97965357805354458 20 4280 27 6414 19 12655
3261 -1.7525763189128509 2.9589101123760706 16.723090942978278 230 238 240 1.9153404923492441 20 4429 27 6423 19 12771 21 5322 1 5387
3262 -0.57775510432109634 3.2870319554479033 16.958858546707187 242 250 253 0.72388294050031643 3 11256 27 6426 4 6824
3263 -1.8441995372990674 2.9888903490969256 16.821330320231837 250 255 255 0.47952608892310733 3 6407 27 6439 19 7558 4 6305
3264 -1.9188086235471651 2.9877588089565061 16.793740493945389 245 250 253 0.58472624041371679 3 6405 27 6456 19 7562
3265 -0.82231471783032906 3.2930223504879841 16.858152617350587 238 246 249 1.4995282472939513 3 6757 20 4546 27 6487 19 7708
3266 -0.26451474741291509 3.4089463128531712 16.8690182265616 189 196 202 1.9692385017226757 3 6892 27 6488 19 7779 4 6978 28 6879 6 6563 8 7293 7 13672
3267 -0.65559399687989039 3.3489242476017465 16.906520960080016 236 244 247 1.2469685951291596 20 4557 27 6502 19 7733 26 5463
3268 -0.67829923335506559 3.3765126789841147 16.891490036523781 207 214 220 1.2328411476405636 20 4573 27 6517 19 7762
3269 -1.436856712045669 3.2018274886127727 16.745857871348392 211 219 221 2.0091869793805381 20 4524 27 6534 19 7702 21 5390 1 5470
3270 -3.9820481116022011 2.618757960870457 16.569050031731713 230 236 234 1.4935419446188205 20 4317 27 6540 19 7447 1 5313
3271 -1.5634197806754386 3.2438420583936449 16.837257567926283 244 252 254 0.38379603644980637 3 6669 27 6555 19 7715
3272 -2.8091075073075009 2.96248695529246 16.685957693110613 238 244 245 1.4184949358830157 3 6321 20 4441 27 6574 19 7605 21 5466
3273 -2.059970288230875 3.146361507349988 16.74387478834586 245 251 254 1.6989241967317374 20 4502 27 6578 19 7681
3274 -2.059970288230875 3.146361507349988 16.74387478834586 245 251 254 1.6989241967317374 20 4503 27 6579 19 7682
3275 -0.53834592265907988 3.5374189049376232 16.904168213035017 235 243 246 1.5684358693090505 20 4621 27 6598 19 12953 21 5429 28 6860 18 9128
3276 -0.98474872390314883 3.4923662906481177 16.952582068514953 205 213 216 0.41250920580950101 27 6618 19 7827
3277 -2.3150824443103279 3.1411591732691577 16.631470138847014 208 214 215 1.6552128963213117 20 4516 27 6625 21 5498 1 5497 26 5407
3278 -4.0783549949411038 2.7558338818197479 16.609694078993748 200 205 209 1.1627110830035303 3 6075 27 6626 19 7538 6 5527
3279 -1.4551535788360328 3.3557072421429122 16.713290137529196 240 248 251 1.3336523777525822 20 4585 27 6631 26 5519
3280 -1.4587031201780984 3.3866607052046018 16.856950030492591 240 248 251 0.34554889889767643 3 11272 27 6632 19 7806
3281 -1.2822362582698856 3.4299682924250163 16.80113183157162 239 247 250 1.430047792350595 20 4602 27 6639 19 7826
3282 -0.67919978959039551 3.5998138591013147 16.944880820360197 187 195 208 1.2145832327893791 27 6653 4 11623 28 6843 6 11399
3283 -2.4088400972664714 3.1664329745451805 16.617616571511665 211 216 222 1.7566377637787969 20 4535 27 6660 19 12896 21 9897 1 5521 28 6060
3284 -2.6332961332919709 3.1537320247646261 16.709849342981997 236 242 243 0.89193474004127271 3 6517 27 6667 26 5424
3285 -1.2892750331779579 3.5103166439417182 16.911977614981105 230 238 240 1.7330520760457659 20 4618 27 6675 19 7844 21 5503 18 9278
3286 -3.7441271664630409 2.9191382770666108 16.635140160339837 209 214 217 0.8401876040598083 20 4432 27 6679 19 7629
3287 -1.8255894519510103 3.3549776732441465 16.73820378079953 211 219 221 1.525596771402961 20 4583 27 6680 21 5509
3288 -2.1333929745469136 3.2745143691845398 16.652505242175003 209 214 217 1.2193477266814712 3 6678 20 4568 27 6684
3289 -0.93260860967018255 3.5833414122562965 16.861321863739402 203 211 214 1.356744529240737 3 6969 27 6692 19 7879 28 6764 6 9873
3290 -0.88788891409774517 3.6659097633313653 16.882940185020971 223 234 240 1.9162652495381709 27 6709 19 7923 21 5514 4 7093 20 4654 28 9593
3291 -2.2840938158861257 3.3437729126977582 16.696979192127223 247 253 253 1.6578263991090314 20 4587 27 6722 19 7831
3292 -1.9452808997498829 3.4159146579427668 16.68713974506344 234 243 242 1.1841745124168701 3 6806 20 4608 27 6723
3293 -1.5111061839425077 3.6830571573628959 16.780570312499254 232 240 243 2.378060645200236 20 4669 27 6814 19 7970 4 6990
3294 -2.1850200418881087 3.5382360376900919 16.66395884077091 194 202 205 1.9447451889673411 20 4643 27 6834 19 7935 21 5599 26 5668
3295 -3.0574703941432717 3.3506659242398165 16.592225801233461 184 194 204 1.7862426028235436 3 11224 27 6842 21 5623 26 5585
3296 -3.0330127653121308 3.3693193808971582 16.635555098624625 182 191 199 1.7674688682098181 3 6707 27 6848 19 12973 4 6453 28 5903 6 6197 8 5588 7 6321
3297 -2.0645812031478892 3.643072980209328 16.761802483772428 190 197 203 1.380383299940479 3 6959 27 6873 4 6863 26 5724 28 9465 6 6442 1 5669
3299 -0.25180321288006852 -4.941792687542069 17.002447391532264 166 182 190 1.6469735286837064 3 207 27 7747 19 8259 21 6 4 298 28 7660 22 138 8 1563 5 8014
3300 0.5086635657799965 -4.7160048214559822 17.060032284329974 173 188 186 0.80628311932969521 3 7941 27 7750 19 8316 21 13 28 7911 6 10106
3303 -0.54451456502872231 -4.9229095361819288 17.016798149847912 209 221 223 1.9015623824058141 3 7897 27 7762 19 8276 20 62 21 26 4 282 26 7466 6 6944 22 146 8 1384 5 355
3304 0.51169301194506001 -4.6655528463482652 17.118675280726521 161 171 173 1.6744228718510705 20 152 27 7765 19 192 4 526 22 257 7 1828
3306 -1.3105516939951616 -5.0081522359876551 16.859793052795158 176 192 198 1.2202898276196534 3 7857 27 7773 19 8253 20 19 1 17 28 7371
3307 -1.3130213681530145 -5.0084772024238697 16.868345902369722 176 192 198 1.1207858447149852 3 7856 27 7774 19 8254 1 18
3308 -1.3183469461009056 -4.9383956782167058 16.890281236595754 178 191 199 1.1907859414031412 3 7875 27 7783 19 13111 20 7495 21 10046 1 5838 1 8934 2 5575
3311 0.76703588776528497 -4.3726922129710886 17.081544413733845 216 229 225 1.3783264426179507 20 267 27 7792 1 225 26 370
3312 -1.7100814840038301 -4.9387079110946912 16.856799846431933 182 198 211 0.76093822527398947 3 7864 27 7794 19 8285 21 5820 2 13 28 7311 6 6833 22 103 8 715 7 10093 5 7927
3313 0.98158276418283963 -4.2805907556970393 17.08646877570273 182 195 201 1.1884830765956227 3 8043 27 7796 19 368 21 100 1 258 26 406
3314 -0.12106660844109979 -4.5202692056657039 16.979964744546361 183 196 203 0.70572448549845634 3 7966 27 7800 19 13165 1 5896 2 208 4 8672 26 318 28 10093 6 10104 22 7816 8 8874 7 14805 5 8117
3315 -1.3344453234107689 -4.8105239328849674 16.842629550017108 210 225 230 1.2148899985766475 20 4732 23 1148 27 7802 19 13135 21 5829 1 5852 2 58 4 243 26 214 22 161
3320 -1.1424009003604243 -4.69551846107841 16.884589449190315 214 227 233 0.63349434786753545 23 1292 27 7824 19 8361 21 5859 2 5602 26 258 22 203 4 8564
3322 -2.1573901203349455 -4.9257204831803731 16.807624617731172 204 218 219 0.93081809358167877 3 7855 27 7827 19 8296 2 6 4 8471 28 7215 22 98 8 505 7 10009 5 120
3326 0.027249742698569515 -4.3483930650778975 16.989384180207416 203 217 220 0.90687808333934283 3 8004 27 7839 19 8475 21 5888 2 275 22 344
3327 1.4443644417289225 -4.007367913713642 17.146906423185197 207 219 221 1.1534174772673593 20 4990 27 7845 19 8604 21 5905 1 402 2 466 26 516
3328 -1.161456488784089 -4.5965757444188693 16.914650963950198 179 193 202 0.62077760999728793 3 7931 27 7848 19 8405 21 5910 1 158 26 306 22 241
3329 0.0079934805641382611 -4.3099336373868997 16.989528718108357 179 192 200 0.73880710040163822 20 4876 27 7852 19 8500 21 5914 1 265
3332 -1.6646240951019806 -4.6624526591965738 16.833415044128316 183 197 208 0.68173638346491772 3 7909 27 7860 19 8385 4 8540 26 276 28 9839 6 10003 22 206
3333 -2.4780857021701617 -4.8477566111416381 16.752942071909263 209 221 226 1.6517256132646063 23 817 27 7864 19 8325 1 70 4 8468 26 209 28 7178 6 6782 22 7769 8 8263 5 7902
3334 1.3586471222216667 -3.9240138359461789 17.079737045629592 178 195 202 1.7289464079921655 3 8129 20 436 19 8641 20 5010 1 445 2 495 4 8910 28 10428 6 10314 8 9462 7 11560 27 7866 9 2817
3335 0.012046485744334826 -4.2416403571259895 17.063546016817735 180 193 199 0.78732071297574002 20 321 27 7872 6 7256 7 1826
3336 0.010521595082136334 -4.2409456196655384 17.065068121054413 180 193 199 0.97770015750020156 20 322 27 7873 6 7257 5 8200
3343 1.5683939259311641 -3.7634976414333838 17.155732886282852 176 189 198 1.1505016054545885 20 530 27 7895 21 294
3344 0.48352099937798265 -3.9872482476059328 17.032653111130063 207 218 222 2.021550563166993 3 8095 27 7896 19 13256 20 4985 21 5999 1 6025 2 439 4 8833 26 525 28 8144 6 1146 22 486 8 9188 7 11162 5 1161 10 7659 24 10183
3346 0.99883417078950343 -3.8561953152288102 17.06294682693526 206 219 225 1.2730619540300729 20 5028 27 7902 21 6005 1 6056
3347 0.99883417078950343 -3.8561953152288102 17.06294682693526 206 219 225 1.2730619540300729 20 5029 27 7903 21 6006 1 6055
3349 -2.836979125762173 -4.7461870808379567 16.769544120570103 206 219 225 0.83456081546517602 23 774 27 7909 1 5880 3 11728 2 5583 22 7780 8 11348 7 14378
3350 -2.8304752518503458 -4.7431186101702147 16.759768577712236 206 219 225 0.85885852284756392 23 775 27 7910
3351 0.38367009813893549 -3.9524984308043698 17.013615229449297 184 197 202 1.0421820440364313 20 422 27 7912 19 8656 21 6028 1 455
3355 -0.53358641603376533 -4.1033728916214995 16.9396715037186 186 199 205 0.95485407252854848 3 8042 20 4941 27 7925 19 8613 21 6070 2 360 4 8726 26 493 6 7226 22 436 8 8864 5 8181
3356 -2.1247344582656096 -4.4864087744940733 16.790115053201127 186 200 209 0.91814807509707985 3 7929 27 7929 1 218 4 8554 26 358 20 189 28 7342 6 10010 8 11414 5 11069 9 5289
3358 1.1649767824067516 -3.6531795751227625 17.119430134205132 182 195 201 1.1229147628581353 20 587 27 7949 19 8793 21 396 1 621 2 608
3361 1.0977657775218734 -3.5984220627733419 17.11073712238797 184 199 204 0.54237816365835467 3 8201 27 7987 4 9008 26 702
3362 0.070057378459629477 -3.8303906903517349 17.010541180046967 181 195 201 0.73583697433616502 20 5040 27 7991 19 13310 2 5740 26 7626
3365 1.0080053198170813 -3.5765374378353991 17.090083077316066 180 194 203 0.93466862724153166 20 623 27 8002 19 8836 21 6174 1 674 2 644 22 685
3368 0.92788552568553984 -3.5766016859029786 17.085018395233352 184 199 204 1.0266712326965481 20 618 27 8010 19 8834 21 6190 1 672 2 639 26 718
3369 0.92418724279921649 -3.5735430439725087 17.061258336850507 184 199 204 0.94162986861871645 20 619 27 8011 19 8835 21 6191 1 673 26 719
3372 1.5233943785897943 -3.3845594852838587 17.149176758772285 184 198 206 1.1114039885964906 20 761 27 8027 19 13423 26 7698 4 9112 22 793
3373 1.5789883207841602 -3.3760701661709756 17.200090499183414 205 219 226 0.99792077816407709 20 5211 27 8030 21 6211 2 794
3374 1.5692522109891638 -3.3694317782598371 17.145924230675067 205 219 226 0.76557217786831711 20 5210 27 8031 21 6210 1 6220
3376 0.6790801215592982 -3.5551005882889948 17.043619903949473 185 200 207 0.34657627424539578 3 8197 27 8038 19 8858
3377 0.6790801215592982 -3.5551005882889948 17.043619903949473 185 200 207 0.34657627424539578 3 8196 27 8039 19 8857
3382 0.94407450662688763 -3.449625564908708 17.077198580282147 184 199 206 1.060902697097786 20 5175 27 8064 1 753
3384 0.86143475334618091 -3.4488152256526354 17.064138574269389 186 199 207 0.85410987454879839 20 702 27 8075 19 8908 26 786 4 1329
3385 1.711943658427028 -3.2548539433016548 17.153619784175749 185 198 207 1.115796136133173 20 5240 27 8076 19 13459 21 6270 1 6263 2 881 26 871
3386 -3.4568957214792468 -4.4551687436592999 16.678121517694091 215 228 234 1.0795776987373826 23 734 27 8088 19 8523 21 6277 1 5942 4 8502 26 7528 28 7107 6 6805 22 242 5 7909
3387 1.0369724641662641 -3.391632618179115 17.113403283151836 183 196 202 0.99573474247971927 20 5195 27 8090 19 8940 4 9073 6 10419 22 783 7 15309
3389 1.672897835184826 -3.2242049878237786 17.145713197186666 207 219 224 1.1180005870877356 20 5253 27 8093 19 9018 21 6305 1 886 2 897 26 898
3390 0.45376773897805311 -3.5084575544630945 17.047254447585864 181 195 204 0.87462374125579612 20 663 27 8095 19 8893 21 572 2 665 26 759
3391 0.45353281306410731 -3.5084724524869979 17.047810370325049 181 195 204 1.023511935390095 20 664 27 8096 19 8894 2 666
3392 0.95763290340482254 -3.3833299027454609 17.082190402091516 184 199 206 0.91869632201147833 20 5197 27 8100 19 8954 2 750 26 814
3393 2.0546742378597824 -3.1043757574330515 17.153232306006892 181 194 202 1.2270216558131983 3 1301 27 8101 21 6325 1 6322 2 978 26 960 28 4159
3394 -3.5911827942866283 -4.466837336405173 16.68422348523195 207 219 222 1.3042550531958399 3 7906 27 8103 21 6301 6 6789 8 165 7 9881
3399 0.038607878494027165 -3.5322821118905998 16.975165677627871 181 196 201 1.1238868100878678 20 645 27 8133 19 8889
3401 1.7309224432088897 -3.1164938315958803 17.143904467045758 180 193 199 0.85182589614403859 3 8400 27 8137 19 13496 21 6364 1 969 2 961 26 961
3402 0.5410898348705776 -3.3982188745189257 17.049853532788841 187 200 208 0.81576260049376659 3 8239 27 8140 19 8955 26 812 6 10374 8 9388 7 15213 9 2576
3405 1.1506122839425568 -3.1937294675363059 17.130644928228715 183 197 208 0.65974039663597372 3 8344 27 8157 19 9054 20 5278 4 9148 26 930 22 864
3406 1.1492765844166237 -3.1919998593180621 17.117190038818421 183 197 208 0.42708446882257534 3 8345 27 8158 19 9055 26 931
3407 0.85488651137398508 -3.2520410201149068 17.074907890223066 206 217 219 0.63019184505028158 20 5239 27 8164 19 9031 1 889 21 6413 2 813
3408 0.85573214672398434 -3.2530377702796933 17.082463503408533 206 217 219 0.65837755119038233 20 5238 27 8165 19 9032 1 890 21 6414
3409 1.9208902079680599 -2.9949950595539621 17.19079131085423 183 198 205 1.2559029668602324 20 5362 27 8170 19 9143 1 6386 21 6432 2 1055
3410 1.9188690326738496 -2.9943098403660482 17.183963962484128 183 198 205 1.2061593568952464 20 5361 27 8171 19 9142 21 6431 1 6385 2 1056 26 1026
3411 -3.5603730742187136 -4.2904088501523328 16.660645368263957 190 201 207 1.1210143132391051 3 266 27 8172 19 8609 21 6410 4 229 26 453 6 6838 22 297 8 205 7 111 5 153
3414 1.2430222180785848 -3.1254662596250213 17.124667648042315 184 195 201 0.96978836950066061 20 5304 27 8180 19 13504 2 932 26 965 22 893
3417 -0.020614840099504705 -3.3733758666024554 16.995590482121276 185 200 208 1.1868313177014089 20 753 27 8192 19 1040 4 1218 26 848 2 715 28 2728 6 1483 22 756
3418 -0.26661809271530112 -3.4318756290996157 16.974533968018378 188 201 207 0.85369805768595775 3 8204 27 8194 6 7538 28 8150
3420 -2.9393641497193292 -4.0619304534580216 16.742594461739518 192 205 213 1.0061114935632274 3 7990 20 7557 27 8199 19 13300 1 6049 2 5655 4 8603 26 553 22 7862
3421 -2.9428984989969695 -4.0681776370336609 16.758957050275395 192 205 213 0.7313837613602886 3 7989 27 8200 4 8602 2 5656 26 552
3423 -0.84717784696327514 -3.5474221542043796 16.908480102036453 185 199 200 0.43943787679375523 3 849 27 8205 19 8910 21 718 1 744 2 594 26 757
3427 -2.8956373805426829 -4.0191423084439952 16.73860060111387 213 226 232 0.61363268935991999 3 431 27 8214 19 8729 1 510 4 411 22 425 8 559 5 343
3431 1.175518516073444 -3.0268888208496314 17.090177924164603 180 197 205 1.1632228915723646 20 5343 27 8224 19 9151 26 1024
3432 -0.083532389072792257 -3.3099958294514096 16.985502106343031 186 201 206 0.7244168044012923 20 802 27 8229 19 13472 1 885 21 757
3433 1.0965014509800219 -3.0346304306628449 17.128716974408789 183 197 206 1.0688492573061215 20 971 27 8231 19 9148 22 934
3435 1.990843971552219 -2.7716085851671686 17.188980665714098 207 220 221 1.3850872722436574 20 1137 27 8254 21 6551 2 1184 26 1195
3436 0.76154930065383886 -3.0737035923914875 17.119412552127962 187 202 207 1.7369473129366513 20 5327 27 8256 19 9140
3437 1.5565372811296119 -2.844425793060867 17.108005789590113 210 224 227 1.6041488938806163 20 5421 27 8263 19 13586 1 6466 21 6556 26 1163
3439 0.26287480762881177 -3.1438943938159842 17.045630047402053 183 196 202 0.41170934008728888 20 5298 27 8267 4 9091 26 980
3441 -3.1224525574160511 -3.9165715463919004 16.754008087626971 230 241 245 0.81122705625913194 23 1053 27 8283 19 756 21 841 1 582 2 354 26 623 22 453
3444 1.457586669656787 -2.8030214868623382 17.145197114023869 187 200 206 1.0879887342617605 20 5443 27 8295 19 9283 21 6603 1 1189 2 1145 26 1186 22 1047
3445 1.5815133955290042 -2.7725799838819416 17.143297180886833 208 223 226 1.0415340596094684 20 5458 27 8296 21 6605 2 5982
3448 1.6211166838153961 -2.7506777220359724 17.136082697715359 186 200 208 0.89808851263466105 20 1146 27 8305 19 1503 21 857 1 1224
3451 1.2791024502476862 -2.8135609523179621 17.113249278832786 185 200 205 0.76305514494557181 20 1105 27 8316 19 1466 26 1176
3452 -1.2030814671818695 -3.3953264276569843 16.880332234550753 216 227 231 0.65235582703760731 3 8182 27 8320 4 1007 28 7927 20 720 6 7420 8 1893 7 10802 5 1123
3453 -2.4719598386925319 -3.6925753839643778 16.782895124536431 192 205 213 0.88441685982498763 23 1417 27 8337 19 8888 1 708 26 723 3 648
3454 -2.4669269315633011 -3.6837835349860653 16.739790531894901 192 205 213 0.99299120425252541 3 649 27 8338 26 724
3457 1.4603190899982448 -2.7171983344576396 17.108577704431543 186 199 204 1.0416772065689892 20 5474 27 8351 1 1259 21 6666 26 1231
3458 0.61671280427173336 -2.9081001615265034 17.038888897286302 182 195 200 0.89524046641581778 20 5385 27 8354 19 9251 1 1139 21 909 2 1039
3459 0.61448778512734881 -2.9073250053882962 17.018241027961064 182 195 200 1.1287940914778229 20 5386 27 8355 19 9250 26 1138
3461 0.28321211464668206 -2.9933088869952122 17.035808846086326 191 202 208 0.59318687714745622 20 5354 27 8358 21 6672 1 6429 2 970
3463 0.79265496811255054 -2.8548395378294416 17.067925367332442 181 194 203 0.85040314641115311 3 1383 27 8361 21 6688 1 1174 4 9221 26 1169 8 3858
3464 -0.89148116073865402 -3.2585417123538472 16.935122614590455 191 202 205 0.79265665769441207 3 8237 27 8362 21 6681 1 6319 22 803
3465 2.4079727511341686 -2.4598485146864233 17.201157408461366 188 203 210 1.0920223484387506 20 5584 27 8365 19 9463 21 6690 1 6618 2 1399 26 1355
3467 2.0782566611594153 -2.5343006913641442 17.213814955984255 175 189 195 0.87543999942472472 3 1790 27 8369 19 1673 26 1331 6 8295 4 2252 22 1250
3468 -2.7658530263646988 -3.6878878347781505 16.763099959021705 233 244 248 1.0277891423724947 23 1325 27 8373 19 13414 26 7666 28 9869 24 9311
3470 -0.21877771460136766 -3.0693669150098537 16.992935133771741 188 201 210 0.94563630574647628 3 8328 20 948 27 8376 19 9177 21 938 1 1060 4 9077 26 1036 28 8277 6 10396 22 879
3471 1.6466550988011646 -2.6091897113949991 17.139786997139407 189 200 206 0.8404263311087381 20 5521 27 8379 19 13659 21 6707 1 6574 2 1269
3472 1.6466550988011646 -2.6091897113949991 17.139786997139407 189 200 206 0.8404263311087381 20 5522 27 8380 19 13660 21 6706 1 6573 2 1270
3474 2.5268031449906649 -2.3908496981136516 17.332099777800799 171 186 193 1.3619384978627778 20 1401 27 8394 4 9571 26 1408 22 1348 8 10144 7 12613 5 9106
3475 -0.078227254377380706 -2.9837149939448269 17.032949994244085 211 222 226 1.0419266096528641 20 5358 27 8400 19 9224 1 1118 2 962
3477 1.9035390613791685 -2.4938392608097293 17.183305274061414 177 191 202 0.64792221870723288 3 8703 27 8404 4 9467 26 1350 22 1268
3479 0.30486553776766256 -2.855424075657607 17.033934750254058 189 203 210 1.220838217743162 20 5412 27 8415 26 1180
3480 0.89256472579829149 -2.7155406087844334 17.079349624855144 183 196 204 0.74037551594750239 3 8535 27 8416 22 1102
3484 2.722328201265714 -2.2815020346263086 17.297716011129129 172 185 194 0.77302788528446131 20 5674 27 8427 2 1561
3486 -1.4145998671322224 -3.2273856963404688 16.884615323619524 213 228 231 0.90862904049192572 3 1000 27 8436 21 1016 1 1002 2 736 22 797
3487 -1.4114786571481315 -3.2225052198540265 16.850644798883142 213 228 231 0.54934049909003668 3 1001 27 8437 19 1232 21 1015 22 798
3493 -1.0318901219118881 -3.0931712303062731 16.866292198221185 187 200 206 0.97244112563706786 3 8285 27 8454 19 9194 20 919 7 14956 5 11337
3494 2.2308381428608834 -2.2883804234073777 17.196906418020248 212 224 230 1.0436041103012752 20 5661 27 8466 21 6834 1 1540 26 1501
3495 0.40378574466559602 -2.7183536087006845 17.046169353823828 192 201 208 0.96719739926321824 3 1480 20 5469 27 8470 19 9378 4 9239 26 1248 6 10514 23 3029 22 1081 8 9522
3499 1.9842688548650202 -2.3253513814400155 17.2299993341461 209 223 226 2.0230664509787322 20 5650 27 8482 21 6854 1 6701 19 9563 2 1504 26 7981
3501 -3.6434832649950173 -3.6409932949657806 16.706361615048802 219 230 234 0.97361166421583678 3 8065 27 8491 19 8967 20 568 21 6878 1 788 2 444 4 8677 26 770 22 554
3503 2.1029458798939191 -2.2491930027997915 17.207791121967929 189 201 207 1.2235292987607409 3 8855 27 8501 4 9583 6 10740 5 11735 9 6621
3504 1.9450789262540322 -2.2664515727865084 17.172874770038437 181 194 203 1.1180326953274364 20 5677 27 8507 19 9603 21 6893 1 6748 2 1533 26 1520
3505 0.74211437293419469 -2.557625543683669 17.044197833798037 186 199 207 1.5787622501583793 20 1270 27 8510 28 8606
3508 2.7225410624433444 -2.0313703833784111 17.213015970131146 179 192 201 1.3619417656433974 20 1629 27 8525 19 9725 21 1145 1 1708 28 5142
3509 -1.6389907456727151 -3.0516338100464204 16.861232503743697 214 225 229 0.64294824656372385 3 8278 27 8530 4 1174 26 1088 22 863 2 835 8 1823 7 10789 5 1247 28 1985
3510 1.354210203533339 -2.3334929028859479 17.110036540019163 184 199 204 0.21375343275850178 3 8778 27 8531 26 1488
3511 1.3577724233900308 -2.3325434009469972 17.129883497286485 184 199 204 1.0604547036322343 20 5640 27 8532 1 6722 2 1448 21 1156 26 1489
3513 0.34171385635894369 -2.5669166797758542 16.98077848894647 189 202 210 0.69064705766576984 3 8579 27 8538 22 1157
3514 1.5230439806144562 -2.290933237854222 17.138818534931442 191 204 210 0.99748344732705574 3 8812 20 1451 27 8540 19 9615 4 9505 26 1519
3515 0.099266873130804317 -2.6059275338135475 17.008949786771097 185 198 206 0.82786325024112395 20 5519 27 8553 19 13688 1 6612 21 6952 2 1199 26 7913
3519 -4.4733908185550089 -3.6662942584563871 16.614888445744079 184 193 201 1.0708208037881219 3 8039 27 8587 19 1017 21 1207 20 537 28 7115 22 526
3520 2.1442642885855334 -2.077598644972745 17.213898838792616 183 195 207 1.1028981569737213 3 2150 20 1595 27 8591 19 2139 21 1210 1 1703 6 8505
3521 1.289968813375729 -2.2680634571503102 17.143317308520228 185 197 204 0.45240258495187174 3 8813 27 8592 19 9636 26 1546 22 8272
3525 -0.31530844231296762 -2.6191672338788963 16.962830490851459 191 202 208 0.73513531635844798 20 5508 27 8604 26 1330
3526 1.0371189811871098 -2.2974600446609372 17.089526185916352 185 199 208 0.20000673697591534 3 8782 27 8605 26 1524
3527 2.2713582709918612 -2.0021298580592046 17.181738624289792 219 228 233 1.4868727217492324 20 5788 27 8608 2 1719 26 8070
3528 1.7218888836934079 -2.1194973095616985 17.165589203660918 186 201 208 1.2501438386513191 20 1568 27 8614 19 2128 2 1612
3529 1.7218888836934079 -2.1194973095616985 17.165589203660918 186 201 208 1.2501438386513191 20 1567 27 8615 19 2129 2 1613
3530 1.8923968504456361 -2.0616383474756312 17.163453026934558 185 200 207 0.75846177413558868 3 8928 27 8618 19 9741 20 1610 1 1725 21 7032 2 1655 26 1685 22 1516
3532 1.2973309337396881 -2.1941062647562291 17.096207421610387 182 199 207 0.82166991659429955 3 1997 27 8622 19 9676 26 1600
3533 0.87811807893286364 -2.2895079446216022 17.115086630112678 189 202 210 0.79567541740955039 20 1460 27 8625 26 1545 3 8781
3534 1.4652323106054568 -2.1450291570848519 17.147792280749734 189 203 206 1.1052571536315059 20 5732 27 8633 19 9703
3535 1.4609720270071049 -2.1396328844425145 17.111475771389216 189 203 206 1.197169374652143 20 5733 27 8634 1 1679 2 1585
3536 -0.47180813862109705 -2.5948253126154754 16.966624267047823 192 204 209 0.85827271999521115 20 5529 27 8641 19 9493 26 1343
3537 -0.4009826003392194 -2.5731572530500584 16.94496151526824 186 199 208 0.59367119440928717 20 1262 27 8647 19 1817 28 8381
3541 1.9027520901688399 -1.9802199684061992 17.160615607748909 186 200 209 1.0970958774112165 3 8971 20 5801 27 8666 19 9797 21 7088 1 6887 2 1728 26 8082
3543 -0.22105707748801617 -2.4818366159905731 16.972154970753785 183 196 201 0.59406038402971428 20 5573 27 8670 19 9550 21 7092 1 1494 26 1428 22 8205
3544 0.4597140539772282 -2.2936087078147747 17.025292399807732 187 198 208 1.20163361349266 3 1847 27 8679 1 1608 2 1420 20 1456
3545 -0.11759669921533533 -2.4354013919192377 16.992697757108697 184 195 201 0.92693976743268414 3 8630 27 8681 1 6709 26 1468 6 8008 22 1241 8 3470
3546 1.9914452127276854 -1.9294842109479129 17.16528492800612 186 199 207 1.0022667963769876 20 1704 27 8683 21 7108 1 1829 19 9840 2 1763 26 1770
3547 1.9983040537096617 -1.9323884508075673 17.2041206756756 186 199 207 0.86642620134824067 20 1705 27 8684 19 9841 21 7109 26 1771
3548 2.0483554289636334 -1.9157064965139932 17.245836323528199 212 226 229 0.92662950542435407 20 5843 27 8685 19 9857
3549 -4.6247704436790427 -3.5127846977971284 16.63487651875699 182 196 199 1.105559660198963 3 8072 27 8690 19 9085 21 1344 20 638 1 910 22 579
3550 -0.96157272118382664 -2.6057905352466997 16.893202384897901 191 204 210 1.0274951453953964 3 1422 20 5516 27 8696 1 1443 21 1346 2 1155 4 9171 28 10358 6 11608 22 1107 26 1349 8 11856 7 15101
3551 1.9237909970925879 -1.922194083297641 17.196499417384452 186 199 207 1.0178747722495431 20 5837 27 8698 2 1780 26 1781 22 1615
3554 1.2388871347192989 -2.0429873663861224 17.128951577241395 188 204 211 0.47388573544780666 3 8911 27 8713 4 9586 6 10724 22 8339 8 9900 7 12345
3557 1.6435430507562283 -1.9200513578277305 17.211425347735556 212 225 232 0.82483649556852567 20 5838 27 8725 19 9875 22 8370
3559 2.8976913858359667 -1.6158267690460013 17.293181597441794 207 221 226 0.90697033002444571 3 9203 27 8732 19 10035 21 7177 1 2045 2 2072 6 8813 22 1843
3561 1.0755612541961739 -2.0065290967716143 17.067973608515032 188 202 211 0.63920458012310921 3 8914 27 8739 19 9819
3562 1.4287979202643277 -1.9229881680391241 17.167309489679052 184 199 206 0.88072676269264338 20 1718 27 8742 19 9886 26 1798 22 1604 5 9126
3563 1.4214949696710386 -1.9221723779283191 17.126475060645415 184 199 206 0.87712841264304087 20 1719 27 8743 19 9887
3564 1.8853136531940393 -1.8139530454784705 17.184415829924021 211 225 228 1.713687634792034 20 5885 27 8744 19 9948
3565 2.1876004435997487 -1.7321976107355037 17.175805042322636 187 201 210 1.0386649096509968 20 5917 27 8745 19 9989 21 7212 1 7014 2 6280
3566 1.1715057401024234 -1.9609580909059243 17.133365186065824 194 207 215 1.0029041775123422 20 5810 27 8761 19 9865 2 1708 26 8094 22 1575
3567 1.0925882194161709 -1.9472329499754277 17.107220920651169 181 194 201 0.79018221596280125 20 5820 27 8766 19 13898 21 7259 1 6931 2 1707 26 1790 22 8351
3569 1.4244532448702654 -1.8517041862401205 17.096267323877317 187 202 208 1.3235584523927661 20 1765 27 8773 19 9943 21 1470 1 1933
3571 2.9246437573961344 -1.5002857089992272 17.334556466096096 219 230 235 1.4751136561304123 3 2701 27 8778 19 10109 21 1460 1 2140 2 2167
3573 2.3742110057063566 -1.6170539759966522 17.246319844167481 179 193 204 0.70476606391202756 20 5969 27 8785 19 10050
3574 1.7719312929553506 -1.7498807955654754 17.157284544131386 190 203 209 0.97009504138928093 20 1830 27 8791 21 7276 1 1990 2 1894 22 1714
3575 -0.1751312014491424 -2.2085013628321191 16.983212794254889 188 202 207 0.76522710879213596 20 5702 27 8793 4 9377 26 1636 22 1377
3576 2.6814010924111056 -1.5227678200491837 17.25526913504418 207 218 224 0.70773520685415581 20 6002 27 8794 19 10108 21 7287 2 2117
3577 2.2493252932071228 -1.6258350504109584 17.209659866318852 205 218 226 0.70711820815629789 20 5967 27 8796 21 7285 2 2018
3578 1.0911574945351057 -1.88717952096412 17.083554040742271 192 203 207 1.2397888238269699 20 1744 27 8802 19 9933 21 7297
3579 0.49891641821021537 -2.0137233306516813 17.022143603787793 191 205 208 1.6109170354929436 20 5785 27 8813 19 9864 26 1749
3580 1.4405816315274984 -1.7792520806369891 17.111371539297526 185 200 207 0.65552727439685055 20 5899 27 8817 19 13940 21 7315 1 7013 2 1842 26 1901 3 9048
3581 1.6193090747996959 -1.7301368090163249 17.144441497564614 186 199 207 0.99185864157010961 3 9074 27 8819 4 9776 26 1938 28 8918 6 8585 22 1722 8 10078 7 12589 5 9220
3582 1.6150889664454422 -1.7339618456865611 17.148197339138285 186 199 207 0.71596296883508059 20 5922 27 8820 19 10018 2 1905
3583 2.961745481510039 -1.4149087990007598 17.266844518623955 168 182 195 1.5932771999412967 20 2056 27 8827 19 2850 2 2218
3584 1.9559670224364232 -1.6335018184572951 17.155244744343637 191 204 212 1.1197921653179224 20 1899 27 8834 19 2679 21 1536 1 2070
3585 2.3734112847112132 -1.5099032947887889 17.154694010678728 186 199 207 1.5987842637881058 3 9229 19 10129 21 1562 27 8843
3586 0.76556659495792745 -1.8981713320378866 17.089915148313192 194 205 211 0.91978040874469658 20 1737 27 8846 26 1837 28 8760 6 10720 22 8359 7 15587 5 11694
3587 -0.41353528622498825 -2.1745723069420793 16.946494429150793 195 206 212 0.71081072971594683 20 5711 27 8850 19 9770
3588 -0.41537221134396041 -2.1748046588365342 16.92580435586347 195 206 212 0.79926662001994175 20 5712 27 8851 19 9771 21 7358 1 1747 2 6094
3589 2.8823444272183036 -1.3802158989469864 17.244336179768965 182 196 207 1.5286422552912222 3 9328 27 8853 19 2884 4 10040 26 2188 6 8882 28 9179 22 1989 8 6105 7 13024 5 3927
3590 2.4720216184865098 -1.4741065907203303 17.207922217793239 185 199 208 1.0806084211902609 3 9248 27 8854 19 10146 21 7361 1 7115 2 2157 26 8215 22 1929
3591 2.4714387876650994 -1.47509219920271 17.205564885096514 185 199 208 1.0248434925898187 3 9249 27 8855 19 10147 21 7362 1 7116 2 2156
3592 0.52304437226276324 -1.9271802936985627 17.043194354223065 190 203 211 0.83315762233326629 3 8926 27 8858 19 9917 26 1825 22 1572
3593 2.7744185129562187 -1.3905641067839989 17.234858987147952 203 217 220 0.81553502351598239 20 2078 27 8861 19 10204 21 1578 4 3420
3594 -2.4068655406350694 -2.5977844848786842 16.752300391022672 198 209 213 0.48296555816227471 3 8426 27 8876 19 9573 26 1397 22 1059
3595 0.60327925277011396 -1.8804499166794497 17.032381673806356 193 204 210 1.2071269441320949 20 5851 27 8878 19 9967
3596 1.6328715465750219 -1.639564474671543 17.137514711568297 188 202 208 0.41314421799350642 3 12269 27 8881 19 10080 22 8442
3598 -0.077759758735404486 -2.0334444464303609 16.948438161365871 195 206 210 0.32805138067966283 3 8847 27 8887 26 1753
3599 -0.0772106604730039 -2.0343680158752182 16.954690412722876 195 206 210 0.31558103130128606 3 8846 27 8888 26 1754 28 8584
3601 2.4872818119615094 -1.4149089836533943 17.225854900921803 191 201 211 0.71038520781666148 20 2063 27 8901 21 1611 1 2243
3602 -1.6449622212552588 -2.3664647608452025 16.843501463487492 196 207 213 0.71632829625661432 3 8574 27 8916 1 1648 2 1276 4 1701 26 1552 22 1234
3603 -5.0067950612458976 -3.1500430146741007 16.585921384405033 213 226 230 0.98658117353243546 23 905 27 8925 26 7817 22 8029
3604 -5.0155398781739695 -3.1533737725551849 16.616279614993822 213 226 230 1.3497621530603063 23 904 27 8926 26 7818 22 8030 8 8146
3606 0.79133675447184793 -1.7527413673350178 17.058979136869009 193 204 210 0.27543485044526617 3 9017 27 8929 19 2627 4 2674
3607 2.2091168967637249 -1.4180142515645149 17.171713754714883 180 195 201 1.4452203204843579 20 2055 27 8930 19 10209 23 4438 1 2251 4 3271 26 2186 28 9082 6 8799
3608 0.36809415967191372 -1.8528628534586313 17.035178548995333 189 201 206 0.85708675583092564 20 5877 27 8933 19 9987 1 1980 22 1610
3609 1.9037769577460948 -1.4749873504333655 17.182783326074691 185 198 205 0.90915695684401421 20 6022 27 8940 1 2228 2 2126 26 2144 22 1908 3 9228
3610 -0.35049735521494274 -2.0062831520200985 16.969683119393981 222 233 235 0.52061355691466504 3 8851 27 8944 21 7465 1 1880 26 1787
3613 2.1884851815352468 -1.382519990104647 17.169588759831491 211 222 224 1.2537580779646151 20 6065 27 8957 19 10243 21 1693 1 2284
3615 -2.3003930211282939 -2.4259650563388484 16.728911339675044 189 204 211 1.1977760182666788 20 5586 23 2238 27 8962 19 13811 21 7504 1 6793 26 7996 22 1165 3 8507
3616 2.3389121676813667 -1.3227002801274934 17.233199955192482 187 201 210 0.6302522140581831 3 9331 27 8964 19 10262 4 3401
3617 1.737703269333168 -1.4566729715671531 17.153244913089697 187 200 208 0.84939118509383527 20 6032 27 8968 1 7141 2 2129 26 2165 22 1909 3 9227
3618 2.8758615491269337 -1.188772833726047 17.239268120171634 212 225 231 1.768797245988776 20 6152 27 8970 22 2096
3619 2.8758615491269337 -1.188772833726047 17.239268120171634 212 225 231 1.768797245988776 20 6153 27 8971 22 2097
3620 2.5163493900832434 -1.2697747108114119 17.235575454084923 185 196 204 1.0951523428639676 20 6112 27 8973 21 7484 1 2372 2 2305 26 2286 22 2051 3 9370
3621 2.5181568922854121 -1.271012822136711 17.239410976767633 185 196 204 1.1655060586060817 20 6111 27 8974 21 7483 1 2373 2 2306
3622 1.3129954110341044 -1.5508092323804759 17.131526420564459 189 204 208 0.75300198534872043 20 5993 27 8981 19 10155 2 2031 26 2099
3623 1.4866960536244251 -1.5043359728081773 17.148425055874739 184 196 208 0.66030884814366164 20 1989 27 8983 19 10181
3624 2.4789309166442832 -1.2713495224197677 17.230180110316589 216 227 231 1.3592306168827999 3 9367 27 8984 1 2358 2 2296 26 2284 6 8878
3625 2.4732029281990755 -1.272079429973163 17.21229004603698 216 227 231 1.053388432196452 3 9366 27 8985 1 2359 2 2295 26 2285
3626 -4.1176450183431665 -2.8285133881823472 16.60013744979619 198 209 215 0.92546209903948873 3 8258 20 7721 27 8990 4 8842 26 7892 6 10161 8 8302 7 10100 5 8156 9 328
3627 2.6817950850709282 -1.2031063981070624 17.219200551937494 184 197 206 0.84785934735178692 20 2176 27 8994 19 10315 21 1736 26 2330 28 9185 22 2091
3629 2.5856973546074236 -1.2181682699188348 17.219443640237301 188 201 210 1.4402891651781378 3 2900 27 9003 26 2324
3630 1.4058150982468165 -1.4776995961248165 17.122803699954435 181 198 208 0.92726162367741749 20 2017 27 9011 2 2093
3631 2.6534727236461388 -1.1829313787742048 17.244176384767457 212 224 228 0.94321852059535261 20 6148 27 9014 19 10339 21 7531 1 7202 2 2384 26 2353
3632 2.9535225843699791 -1.0964453175032078 17.213838260159129 210 223 229 1.6143552185407914 3 9486 27 9016 1 2490 2 2459 4 10176 23 4815 26 2391 28 9238 6 8978 22 2176 7 13103
3633 -0.19976991859556126 -1.8455569866747426 16.964840935841909 188 201 207 0.56270697290270666 20 1770 27 9020 19 2597
3635 1.3199560565193189 -1.47549189185639 17.116711090171467 189 203 212 0.81903568398422189 3 9191 20 2015 27 9027 19 10217 26 2164
3636 -3.5321967564485282 -2.6074325098076057 16.71229894121532 202 213 217 1.0358944266976502 20 5511 27 9039 19 13774 21 7574 1 6726 2 1043
3639 -4.4757442881187837 -2.8077442625876849 16.617194489119832 222 233 235 0.59426692911083456 3 1050 27 9053 4 882 22 910
3640 1.0422057496488781 -1.4849352297341261 17.108983756826802 218 229 231 0.90401347511037 20 2009 27 9054 19 10223 21 7572 1 2255 2 2068 26 2177
3641 -0.60516187710225344 -1.8675347916241294 16.969165490137399 193 202 208 0.71044492244859625 3 8906 20 5866 27 9057 22 1581
3642 -0.60821402130349889 -1.8668877357178042 16.918268762696886 193 202 208 0.84750253246087703 20 5865 27 9058 19 10024 21 1851 1 2008 2 1661
3644 0.49545257491127237 -1.5768355028445069 17.050642839093509 188 197 202 0.65110161518916199 20 5982 27 9071 19 14010 21 7596 1 7120 2 1969 26 8209 22 1788
3646 0.42374414367349622 -1.5682242880279365 17.057354870565348 188 199 205 1.2209287454987923 3 9101 20 5988 27 9087 26 2122 28 8774 4 9724 6 10780 22 1800 8 9831 5 9116
3647 -4.2587149324140201 -2.6752481622842161 16.597588817732824 194 207 213 1.4783337316217544 3 11948 20 5483 27 9089 19 13763 21 7640 1 6710 2 952 3 8315 4 8876 4 12368 26 1394 28 7388 6 7307 22 8131 8 8305 7 10118
3648 -5.0896154002562977 -2.8649543242183979 16.501175253584634 221 231 230 1.7349838200260486 3 11900 27 9092 19 9511 2 5857 4 8765 28 7175 6 7125 8 8159 7 9914
3649 -1.4426302219332596 -1.9817403264225275 16.847325141937009 186 197 203 0.65070257475370363 20 5804 27 9099 21 1914 26 1844 28 8335 22 1465
3650 -1.4418659318497116 -1.9814149641846601 16.86976050519964 186 197 203 0.71446539805609821 20 5803 27 9100 19 9984 2 6139 26 1845 28 8334 22 1464
3651 0.7479083816801041 -1.4629273022417562 17.079778908249811 183 196 203 0.58578208625491468 20 6031 27 9102 19 10248
3652 0.33103573733147751 -1.5596545742049641 17.060269454604878 187 200 208 0.65919704397555123 3 12256 27 9105 19 10195 26 2128 22 1798
3653 0.32779936168576729 -1.5562401661233736 17.021841862369921 187 200 208 0.84848747025471249 20 5991 27 9106 1 7136 21 7633 2 6293 4 9719 26 2127 28 10643 22 1799
3654 2.612411623501802 -1.0109172549862508 17.157966235426208 187 196 205 1.5040542419935554 3 3123 27 9110 19 3355 1 2583 6 11005 22 2232 4 3728 7 13071
3655 -2.353656926529283 -2.1706706014363903 16.793663514365917 196 207 209 0.56069716296156125 3 8646 27 9116 19 2407
3656 2.9547831787863488 -0.89967947417732119 17.307090059870031 185 199 210 1.4915376875489224 20 2384 27 9125 19 10509 21 7644 1 2657 26 2541 6 9051 22 2326
3657 2.9964083748336052 -0.89394478959604806 17.315445213883226 212 225 231 1.3926680173870303 20 2395 27 9126 21 1918 26 2536 22 2327 8 6455 7 6635
3658 1.7820325392747174 -1.1678384729035121 17.146835820069171 188 202 208 0.51267976801892412 3 9385 27 9130 19 10391 2 2347 1 2499
3659 2.1334223116983067 -1.0718823429462798 17.261445566715551 189 200 209 0.11932487690653452 20 2270 27 9140 26 2431
3660 -1.3453410641726755 -1.8938404136605071 16.858487750200084 196 206 208 0.37448548305329887 20 5850 27 9142 19 13970 21 7683
3661 -1.0870093306598625 -1.8108408987405373 16.948716325995136 196 205 210 0.77799727147982278 3 12178 27 9153 19 10085
3662 -2.8358363173171979 -2.2155593275882843 16.747673169132067 195 208 214 0.32062682766707468 3 8596 27 9156 22 1297
3663 1.152980807594584 -1.2668608312786542 17.093480594892224 209 220 226 1.260880461789349 20 6121 27 9157 19 10352 21 7686 1 2446
3664 1.9212419653868698 -1.0748217620073457 17.15714081678755 212 225 231 1.2058448711402077 20 6198 27 9160 2 2415
3665 0.42305078625647852 -1.4137159598764435 17.018931252324311 184 194 203 0.75913560022649229 20 6054 27 9170 21 1995 1 2354 2 2089 26 2249 28 8799 22 1904
3666 1.9665656030641085 -1.0472749937596353 17.206070815940709 190 203 209 0.5188040262267859 20 2287 27 9171 19 3367 26 2452
3667 0.69341277404553425 -1.3149089929054623 17.112395312281091 189 200 206 0.82561144905277695 20 2118 27 9194 19 10343
3668 2.0587281132327648 -0.98635852901570786 17.189441302914677 195 206 215 1.0448136106833581 20 2327 27 9195 19 3413 1 2624 26 2495 28 9144 6 8915 22 2241
3669 -0.32430678459393003 -1.5387801421319698 16.989360381918974 197 210 217 0.54126855596372636 20 6000 27 9197 22 8448
3670 -4.9455936688701119 -2.6412684428595705 16.54802726572423 193 203 205 0.9860547009788736 3 8296 27 9198 19 9659 21 7774 1 1588 4 8844 22 980 5 8133
3671 -4.4363384092880489 -2.5223176869966708 16.607649344271721 225 234 238 0.81677595075235288 3 1230 27 9200 19 2135 4 1067
3672 -4.4394714486549214 -2.5229301910653827 16.61612572492114 225 234 238 0.65344019169734535 3 1231 27 9201 19 2136
3673 1.9697288003852287 -0.97969464733734546 17.144713716549312 188 200 211 0.76979002262335328 20 6229 27 9205 19 10504 21 7734 1 7327 22 2240
3674 -4.1179698653447074 -2.4288553283770655 16.638723036043832 230 240 242 0.43297043155982212 23 1615 27 9206 19 9766 2 1129 28 7522 22 1113
3675 2.1570118300214212 -0.92779115189297301 17.244724386539499 186 199 207 0.47006681360106917 20 2369 27 9212 26 2548 4 10173 22 2287
3676 -2.0331817756043562 -1.9147952892640645 16.808378049984629 231 242 248 0.476197469833123 3 1951 27 9214 19 2666 4 1993 6 7952 22 1487 8 2370 7 2305 5 2056
3677 1.896666659794364 -0.97197864316419069 17.211866741326943 191 204 212 1.0659227017104187 20 2340 27 9217 19 10516 21 2054 26 2526
3678 1.6461369384590221 -1.0124716099873421 17.193568745783821 189 202 210 0.87911303431491505 3 9466 20 2311 27 9231
3679 -0.30406188667532252 -1.459695577380324 17.014533912129796 195 205 212 1.0614367455980172 20 6035 27 9238 19 10288 26 2236
3680 1.7995682631127146 -0.95471286782098252 17.141255248245507 189 203 212 0.92702357019863102 3 9508 20 2355 27 9242
3681 1.8044842485868238 -0.9567363874443694 17.156328823237139 189 203 212 0.84679239201056122 3 9507 27 9243 22 2256
3682 2.2878835147318743 -0.82628971765545933 17.189821172026399 219 230 236 1.1054645433642472 20 6299 27 9245 19 10600 21 7787 1 2734
3683 -1.553481361920483 -1.7322214213984441 16.819326347272632 194 205 210 0.19731812152172157 20 5925 27 9251 26 2061
3684 2.6064284158599542 -0.74186449432761026 17.306192065434441 189 202 210 1.1446540041083528 20 6320 27 9252 19 10622 26 2681
3685 1.3109044450011635 -1.0379383864844187 17.162544494873728 187 200 208 0.8894523532589137 3 9428 20 2296 27 9256 19 10496 26 2484
3686 2.0797506817336839 -0.85260014491832792 17.198753007035833 184 197 205 0.83007864676227072 3 9570 27 9259 19 10591 26 2624
3687 1.7755194027314933 -0.9109539210328258 17.131638556781386 207 221 226 0.86173691434793775 20 6257 27 9267 19 10564 21 7813 1 2702
3688 1.3500554482830944 -1.0004404385422876 17.136076917925848 214 225 229 0.75346358602819663 20 2326 27 9272 19 10530
3689 1.2314487531457741 -1.0273371150336286 17.146478484415006 186 199 205 0.59548271291609478 20 2303 27 9275 19 10508
3690 2.0416532546396851 -0.83422752819139678 17.173989222018633 212 225 231 1.2031923367009523 20 6291 27 9278 19 10601 2 2612
3691 2.8537424900749078 -0.63348583486347765 17.264432619578063 186 196 205 0.8678610671305016 20 2561 27 9281 21 2140
3692 -0.88993714019177927 -1.5184422941812685 16.867526581738218 189 200 210 0.45553256568062822 3 9058 27 9283 2 1942 4 12703 6 11719 22 8440 8 12047 7 15371 5 11634 9 6051
3693 0.80654575406933571 -1.1065060371224913 17.094559438845248 190 205 210 0.45895248111616987 20 6186 27 9288 26 2449
3694 -0.96735288273605047 -1.5295020427158375 16.897502920112569 197 209 213 0.4152252124077 20 1984 27 9290 21 2170
3695 2.7264868048478457 -0.65015798579328943 17.211571984963228 220 231 235 0.87522330209758614 3 9716 27 9292 19 10689
3696 1.1459468433811852 -1.0165061766538197 17.091381333445845 190 203 212 0.4752542262387307 3 2973 20 2310 27 9298 19 10523
3697 -0.20627464299339063 -1.3330574813595288 16.967067927142516 191 202 208 0.54581516103080885 20 2112 27 9305 19 10368 1 2471
3698 2.9470299974535332 -0.57191485891775451 17.248639323918045 184 196 206 1.4269837619811572 20 2585 27 9307 19 10724 1 2891 4 10395 26 2821 28 9334 6 9131
3699 1.7805278788029186 -0.84335103910903608 17.11615694823535 211 222 226 0.7242706842318728 20 6289 27 9310 19 14194 21 7864 1 7406 2 6542
3700 -0.58341990361310925 -1.3988952074498822 16.942550071843883 224 234 236 0.4202685414871179 20 6064 27 9313 22 1886
3701 1.4021603779652345 -0.92287455069894542 17.117006332660303 191 204 210 1.1137313804339097 20 2379 27 9317 19 10578 21 2177 1 2719
3702 -3.485675683187611 -2.0665854645746462 16.684010762210328 233 242 247 1.0170535117562092 20 1606 27 9321 21 2244 26 1843 28 7795 23 2055
3703 -2.9893142237693353 -1.9278590997735847 16.677118536777868 222 231 236 0.85340954441243566 20 5834 27 9329 26 1935 6 10441
3704 0.13827254523108187 -1.1727656456389366 16.974955241579512 195 205 214 0.4638919781425388 20 2209 27 9334 19 3373 21 2236 1 2581
3706 2.2279085933767955 -0.67025215810971761 17.17124170884464 221 232 234 0.71613741545853182 3 9681 27 9342 19 10701 2 2725 26 2766 22 2458
3707 1.3336152450925469 -0.87987109257558227 17.168324985634086 191 201 213 0.33382010208535434 20 2416 27 9344 26 2622
3708 1.3755696229944931 -0.86276089706664216 17.127558994404286 218 229 234 0.90940671455711009 20 6281 27 9346 19 10613
3709 1.3715756758286544 -0.86426948427150074 17.113714857591273 218 229 234 0.57479650133254789 20 6282 27 9347 2 6517
3710 -1.8673067075684004 -1.6283245988925588 16.803597233721561 187 198 204 0.5109102370034847 20 5971 27 9350 26 8228 23 2918 28 8349
3711 2.0142515310852223 -0.69198380576569973 17.174393764356701 191 205 211 0.54126333147897021 20 6350 27 9354 19 10695 26 2750
3712 2.0128761890407683 -0.69274018817793648 17.167090658861905 191 205 211 0.6687585364864268 3 9654 20 6349 27 9355
3713 -3.2183970155200146 -1.8987608336553397 16.677264897386156 233 242 247 0.61830160622440589 23 2249 27 9372 4 1773 26 1977 8 1514 7 1564 5 1705
3714 -2.1780782156081977 -1.6424348706939953 16.803991474344997 195 201 204 0.62932309959973609 20 5965 27 9374 19 10259 21 2324 1 2307 2 1775 4 9424 26 2149 22 1680 3 2149
3715 1.0941550317275068 -0.8667553405796381 17.113806545813695 186 199 207 0.78613930746256366 3 9523 20 2430 27 9375 19 10619 4 3550 6 8871 28 5123 7 12755 5 3844
3716 2.2773973645501893 -0.57918884405145332 17.173984226101144 181 191 201 0.63571579124149857 3 3509 27 9378 19 10751 21 2289 1 2931 2 2790 26 2844
